ply
format ascii 1.0
element vertex 1827
property double x
property double y
property double z
end_header
0.706785 -8.05295 8.40166 
0.649997 -7.80782 8.35099 
2.20036 -8.60729 8.8986 
1.82416 -8.08653 8.26888 
2.21747 -8.06807 8.24237 
1.78017 -8.23374 8.50469 
0.244028 -7.90162 8.40143 
1.6102 -7.63882 7.78415 
1.96559 -7.89562 8.02877 
0.719517 -7.42093 7.78661 
3.83598 -7.35983 7.13069 
1.54764 -8.48445 8.86209 
0.874408 -8.04177 8.41678 
1.4543 -7.00484 7.29965 
1.3365 -7.84702 8.04317 
1.10706 -8.06022 8.34726 
0.371789 -7.52153 7.91615 
2.24133 -7.59816 7.69204 
1.59009 -6.89699 7.12074 
0.456464 -7.27705 7.64393 
0.455246 -8.03997 8.44859 
2.53881 -8.49721 8.70846 
0.917698 -7.84551 8.09192 
2.22655 -8.10008 8.26598 
2.52604 -8.56854 8.82916 
0.180761 -7.95713 8.45231 
0.60718 -7.68655 8.2234 
1.49563 -8.67085 9.09176 
0.675597 -8.15019 8.51185 
0.85423 -7.12637 7.41869 
1.70744 -7.91607 8.09138 
0.500126 -7.25167 7.62086 
0.225912 -7.94558 8.41436 
1.67325 -6.93019 7.02994 
1.23261 -8.42307 8.77092 
0.612247 -7.88733 8.26309 
0.373831 -7.8014 8.32558 
0.565148 -7.69822 8.20388 
2.91446 -7.23841 7.01043 
1.44031 -7.91824 8.04742 
0.664119 -8.1565 8.54154 
1.56535 -6.91227 7.12481 
1.10673 -8.13986 8.44618 
0.554312 -7.7941 8.1486 
1.08384 -7.66065 7.8304 
1.27113 -7.9864 8.16318 
0.428972 -7.98577 8.42785 
2.55172 -7.28799 7.26271 
1.63191 -7.63533 7.77465 
0.728327 -8.41182 8.70441 
1.4587 -8.53116 8.93266 
1.32004 -6.97323 7.24857 
0.484692 -7.75697 8.32593 
1.84074 -8.80398 9.13505 
1.47499 -8.55369 8.88911 
2.13429 -8.62328 8.92719 
2.26046 -8.00175 8.15984 
0.0698418 -7.78284 8.26006 
0.952432 -7.19168 7.53585 
0.63184 -7.41862 7.75143 
1.33822 -7.846 8.04127 
2.88578 -7.91565 7.99549 
0.762595 -7.04787 7.37203 
0.596693 -7.4144 7.76039 
0.71681 -7.27885 7.60861 
1.97854 -8.23786 8.46541 
0.55401 -7.3075 7.68929 
0.420225 -7.45977 7.86579 
0.414943 -7.44055 7.83719 
1.93487 -8.68143 9.03923 
0.929406 -8.31195 8.67837 
1.05998 -7.162 7.46981 
1.54578 -8.49024 8.86271 
0.670876 -8.27542 8.68799 
1.70288 -8.36511 8.66872 
2.14976 -8.71288 9.05426 
1.87999 -7.22574 7.39054 
1.43647 -7.81278 7.96693 
2.51952 -8.48959 8.6895 
2.63189 -7.85681 7.90863 
0.81013 -7.65891 8.03363 
0.317343 -8.04805 8.49258 
2.0465 -8.48535 8.83567 
1.232 -7.97387 8.22371 
0.730321 -7.6021 8.06434 
1.63637 -7.17585 7.31756 
1.90449 -7.58237 7.6989 
0.678002 -8.10829 8.45848 
0.603862 -6.96692 7.27052 
1.63433 -8.47992 8.83556 
1.61882 -8.48494 8.86894 
0.906114 -8.38989 8.74012 
2.5586 -7.93323 8.01138 
0.8194 -8.40355 8.79424 
0.868608 -7.04299 7.28394 
1.29778 -7.35784 7.61861 
1.34732 -8.56931 8.92987 
1.62958 -8.62051 9.03716 
0.828773 -7.24557 7.61851 
1.23847 -7.87589 8.06679 
0.715595 -7.47158 7.80612 
0.542635 -8.02731 8.41994 
0.532723 -7.73642 8.25414 
0.470851 -8.1617 8.58738 
0.512467 -7.61841 7.99985 
1.28016 -7.21529 7.54379 
0.677863 -7.91637 8.25309 
1.09037 -8.1251 8.42539 
1.54163 -7.31412 7.48683 
0.66892 -8.27673 8.68365 
0.673851 -7.98388 8.34633 
1.56865 -8.23225 8.4674 
1.27195 -8.39017 8.72896 
2.7132 -8.13803 8.29965 
3.48909 -7.59996 7.53058 
0.516101 -7.30511 7.6737 
0.35928 -7.43744 7.85505 
2.09187 -8.90594 9.22926 
0.683309 -8.1131 8.46701 
0.860646 -7.27167 7.61197 
0.150925 -7.91753 8.42416 
0.185628 -7.95598 8.45836 
0.474585 -7.17476 7.53445 
1.67609 -8.1872 8.44152 
0.339075 -7.81138 8.28899 
2.01255 -8.19354 8.40385 
0.6857 -7.18475 7.48558 
0.648024 -8.00784 8.37046 
0.686909 -7.78785 8.16821 
0.324659 -8.08162 8.51115 
0.530643 -7.2656 7.64582 
1.68119 -8.8518 9.13573 
0.492017 -8.11415 8.50064 
0.141862 -7.80902 8.27455 
2.10504 -8.13921 8.33725 
0.727633 -8.08673 8.45357 
0.400326 -8.10728 8.52664 
1.83152 -7.45581 7.6145 
2.05404 -7.72485 7.82593 
1.51017 -7.378 7.50632 
1.16859 -7.02016 7.39021 
1.48945 -7.10204 7.34922 
3.26237 -7.49365 7.39823 
0.131802 -7.98459 8.51559 
1.81067 -8.89486 9.16721 
1.99764 -8.70428 9.08572 
0.417945 -8.09919 8.51358 
1.7329 -8.33903 8.62093 
0.406005 -7.33073 7.70508 
0.432999 -7.29473 7.6905 
0.284097 -7.59843 8.14391 
1.62868 -7.63917 7.7788 
0.618266 -7.54238 7.94133 
0.533838 -7.99141 8.38589 
0.672145 -7.72969 8.17754 
3.0778 -7.40548 7.15851 
1.02946 -6.95495 7.2299 
1.33226 -8.56969 8.91551 
0.104681 -7.80835 8.32293 
0.431632 -7.93336 8.40547 
0.676029 -7.20795 7.52086 
0.341938 -7.62985 8.05373 
1.06335 -7.1747 7.48281 
0.701608 -8.29085 8.69894 
0.230832 -8.08781 8.58842 
1.28703 -8.06411 8.25536 
0.73389 -8.28656 8.71293 
0.872945 -8.45186 8.86095 
0.685355 -8.08285 8.42537 
0.394953 -7.49422 7.88877 
0.319819 -7.67298 8.22834 
1.87765 -7.54933 7.7309 
1.12602 -8.18139 8.47246 
0.64212 -7.65709 8.14764 
2.06018 -7.41841 7.59845 
2.01376 -8.77505 9.15796 
0.881647 -8.11183 8.45222 
3.23816 -7.62413 7.58188 
0.352961 -7.54449 7.9426 
1.4378 -7.06978 7.33272 
1.162 -7.43852 7.7326 
0.771101 -7.22241 7.55482 
0.115735 -7.88303 8.38735 
2.20927 -8.91783 9.25924 
2.48412 -8.17118 8.3557 
2.75059 -7.57098 7.48107 
0.187605 -8.02667 8.50145 
0.0335666 -7.97657 8.51776 
0.45239 -7.68192 8.06224 
0.854052 -8.39118 8.74509 
0.783759 -7.108 7.40478 
0.210617 -8.06623 8.58044 
1.179 -7.17956 7.4968 
0.31754 -7.67537 8.22689 
2.10829 -8.43348 8.728 
1.96617 -8.66775 9.0192 
2.69952 -7.57095 7.49701 
2.41606 -7.69343 7.62909 
0.6025 -7.79235 8.26983 
1.42042 -8.54307 8.91795 
1.3245 -8.56223 8.87635 
0.3431 -7.91711 8.40997 
1.91195 -7.63535 7.76507 
0.869467 -7.82707 8.1117 
2.20337 -8.49398 8.73854 
0.616261 -7.9788 8.33794 
0.480965 -7.95583 8.37552 
0.582544 -8.05643 8.41742 
0.740329 -8.05673 8.42425 
0.660147 -8.22952 8.58431 
1.60753 -8.52293 8.90529 
0.39009 -7.94408 8.40897 
1.13024 -8.41383 8.78691 
0.559516 -8.02439 8.40359 
2.12484 -8.05044 8.22797 
0.361176 -7.98869 8.44016 
1.59882 -8.55176 8.94586 
2.37144 -8.34412 8.60421 
2.10608 -7.59131 7.66898 
2.84751 -7.42296 7.2765 
0.978473 -7.19385 7.51758 
1.30906 -7.52688 7.78314 
0.460601 -7.46152 7.85478 
2.37721 -8.35022 8.61946 
2.02722 -7.96828 8.09296 
1.29612 -8.2451 8.53288 
1.38274 -8.37444 8.66226 
2.69394 -8.10009 8.21633 
1.37323 -8.31351 8.61681 
1.14708 -7.21281 7.56791 
1.07091 -8.29481 8.63835 
2.35636 -8.59367 8.84816 
0.633783 -7.47473 7.82101 
1.92972 -8.18565 8.41251 
2.36875 -7.77768 7.7842 
1.20943 -7.78974 8.08506 
2.02682 -8.91911 9.31838 
0.745447 -7.28546 7.60947 
0.279534 -7.86056 8.38684 
2.67454 -8.00598 8.10364 
2.68393 -8.67643 8.91715 
1.79796 -8.29063 8.56815 
1.30487 -7.23851 7.54712 
3.3692 -7.66184 7.60512 
0.649475 -8.147 8.55305 
1.47808 -7.25757 7.48136 
1.44461 -8.68158 9.08137 
1.77594 -7.28456 7.4534 
0.545684 -7.28398 7.62803 
0.509362 -8.2067 8.67623 
1.24885 -7.13659 7.44055 
1.01859 -8.38895 8.72944 
0.734822 -8.18268 8.59688 
0.555883 -7.21977 7.51799 
1.80957 -8.6453 9.0694 
1.0239 -8.11207 8.42627 
1.01909 -7.77252 8.02413 
0.850573 -8.41473 8.81658 
0.968228 -8.16726 8.49832 
2.02468 -7.89796 8.04042 
1.94271 -7.30733 7.42188 
2.61545 -7.65382 7.58468 
0.454705 -7.97819 8.40819 
1.52054 -8.3544 8.6583 
1.06374 -7.70005 7.93203 
0.997886 -8.1475 8.46094 
0.504861 -7.32386 7.70747 
1.86806 -7.05132 7.20688 
0.967134 -7.99611 8.22101 
0.326301 -7.67617 8.18611 
0.867995 -8.07453 8.45551 
1.02882 -8.48488 8.86768 
1.25482 -8.39828 8.76511 
0.548631 -8.31628 8.73433 
0.612882 -8.01171 8.372 
1.25419 -7.81839 7.99475 
2.44479 -8.2654 8.48227 
0.402832 -7.71249 8.21628 
0.700196 -8.29224 8.70156 
1.43858 -7.97697 8.14905 
0.599744 -7.67246 8.163 
0.512252 -7.33675 7.73488 
2.55292 -7.677 7.609 
0.67952 -8.51788 8.86813 
0.380902 -8.03721 8.4629 
2.29726 -8.4879 8.7239 
0.1987 -7.93827 8.45219 
1.21478 -8.4611 8.79895 
1.08956 -8.06405 8.33787 
0.107216 -7.80988 8.26963 
0.181415 -7.95575 8.46305 
1.36252 -7.11848 7.3739 
2.90455 -8.02831 8.09177 
0.464166 -8.33556 8.74293 
2.13296 -8.78518 9.149 
0.267225 -7.86512 8.34266 
0.526299 -8.03526 8.40088 
1.05428 -8.42205 8.80128 
1.31199 -8.41075 8.72879 
0.987883 -8.63073 8.94647 
1.40688 -7.98654 8.13668 
1.20929 -8.13705 8.32016 
-0.00526451 -7.93174 8.41886 
1.4337 -7.67804 7.85499 
0.602249 -7.55411 7.93876 
1.50846 -7.04 7.27355 
1.28994 -8.41964 8.73519 
0.713107 -8.24565 8.65107 
0.318645 -7.67259 8.22609 
0.734267 -8.4217 8.84556 
1.44569 -8.8241 9.19516 
0.830046 -7.99585 8.31529 
2.85259 -8.2973 8.37015 
0.795284 -7.13753 7.44556 
2.04347 -8.48371 8.82733 
0.208484 -8.03833 8.5139 
0.0332526 -7.9802 8.51752 
1.92359 -8.71277 9.09021 
2.22908 -8.09529 8.24935 
0.26276 -8.19257 8.6768 
0.43653 -7.93123 8.41125 
3.50175 -7.57954 7.43291 
0.453874 -7.57844 7.98448 
0.507682 -8.20908 8.67342 
0.832115 -7.96306 8.08562 
0.67463 -7.52238 7.86398 
1.54884 -8.17138 8.41799 
0.513037 -7.14699 7.47128 
0.780183 -7.55888 7.87954 
0.562341 -8.36701 8.79699 
1.18198 -7.3157 7.68025 
0.138225 -7.95579 8.46128 
1.65024 -8.49623 8.88946 
0.589046 -8.32808 8.75273 
0.823459 -7.83386 8.1493 
1.95976 -7.30288 7.4325 
2.10467 -8.10088 8.28791 
1.06658 -7.14806 7.4484 
0.443621 -7.58374 7.98038 
2.64038 -8.36483 8.5359 
0.334922 -7.47514 7.89825 
0.847867 -8.21777 8.56707 
0.224132 -8.05573 8.49206 
1.70649 -8.34411 8.68565 
0.446634 -7.5851 7.98377 
0.90302 -7.28479 7.65499 
0.541993 -8.09162 8.46978 
0.771353 -8.09893 8.53115 
0.825676 -7.86618 8.17669 
3.15403 -7.51157 7.41697 
1.5764 -7.44536 7.63759 
0.816432 -8.02283 8.4118 
0.75082 -7.26267 7.61916 
0.539529 -8.32373 8.73164 
0.178319 -7.83634 8.35745 
0.48151 -7.21674 7.54075 
2.33422 -7.44601 7.3778 
1.55683 -7.22568 7.31272 
0.219293 -8.07383 8.56184 
0.707278 -8.28647 8.68559 
0.32997 -8.02513 8.45188 
0.535586 -7.32323 7.68438 
2.73105 -8.08957 8.22535 
0.939191 -8.03641 8.3377 
0.0668257 -7.86217 8.37964 
0.52723 -7.99198 8.38248 
0.350427 -7.62719 8.061 
0.68153 -8.11039 8.46417 
0.909093 -8.3465 8.73571 
0.669368 -8.17799 8.53292 
3.57112 -7.65689 7.49627 
2.16449 -8.7192 9.04958 
0.245933 -7.84041 8.36258 
0.209679 -8.06869 8.58154 
0.884744 -7.80003 8.07522 
1.66997 -7.42852 7.64341 
0.211387 -8.13135 8.66547 
0.470164 -7.58622 7.99939 
0.499737 -7.9647 8.36699 
0.584423 -8.36266 8.83038 
3.32982 -7.56373 7.48468 
1.28732 -8.18228 8.45024 
1.31715 -8.57185 8.91517 
2.82941 -7.95975 8.04663 
1.60266 -8.66301 9.14068 
0.776664 -7.37602 7.71646 
0.61442 -8.27408 8.71906 
0.678999 -7.96299 8.29823 
3.13208 -8.26674 8.31449 
0.672981 -7.91281 8.24722 
0.525793 -7.32907 7.7388 
0.705623 -7.93207 8.28137 
1.07485 -8.08382 8.35281 
2.44767 -8.19061 8.33962 
1.00462 -7.59061 7.86691 
1.59638 -8.19143 8.40078 
0.48158 -8.33531 8.75724 
0.585158 -7.56045 7.92924 
1.2872 -8.17994 8.46054 
0.722783 -7.20489 7.54537 
1.32315 -8.22785 8.49773 
1.24844 -7.2986 7.63579 
2.87406 -8.62409 8.78868 
0.908702 -8.37439 8.76344 
0.259099 -8.08728 8.55806 
0.308452 -7.78115 8.30561 
1.40217 -7.59522 7.8268 
0.24282 -8.09963 8.60764 
2.59363 -7.2852 7.23194 
2.19077 -7.57544 7.67037 
0.941195 -7.50553 7.921 
1.79215 -8.94177 9.35459 
0.894281 -7.77122 8.03573 
1.02838 -7.76798 8.02554 
0.162009 -7.94277 8.46859 
2.80444 -8.3312 8.4396 
3.65171 -7.47768 7.31409 
2.55007 -8.34742 8.54725 
0.871924 -8.25934 8.61555 
0.58873 -8.32768 8.75131 
1.28956 -8.46989 8.76711 
2.594 -8.88494 9.19773 
1.47434 -8.37634 8.67701 
3.65794 -7.48804 7.33818 
2.03512 -8.01875 8.18551 
1.79325 -8.29261 8.56515 
0.923248 -8.04067 8.27121 
2.86412 -8.03369 8.09685 
2.18993 -8.0653 8.25074 
2.25523 -9.08633 9.4 
0.186629 -7.95096 8.46857 
0.176344 -8.10336 8.63943 
1.51845 -7.58598 7.81154 
1.10927 -7.38277 7.76721 
0.266017 -8.17746 8.71807 
1.31945 -7.86345 8.05676 
0.589853 -7.3515 7.7445 
1.28421 -7.86511 8.06784 
0.76708 -8.51341 8.94672 
2.67762 -7.38316 7.36751 
0.345953 -8.17312 8.60195 
0.441242 -8.31336 8.74613 
1.31473 -7.48616 7.74171 
2.47398 -7.68308 7.62987 
1.54074 -8.4721 8.84674 
3.78582 -7.37813 7.12461 
0.983893 -8.23053 8.57298 
2.56826 -8.34521 8.55251 
0.955802 -7.25258 7.55443 
0.896168 -8.06775 8.42098 
1.85885 -8.86995 9.27684 
1.21647 -7.82188 7.97141 
1.41339 -7.02152 7.26744 
0.409622 -7.49781 7.93122 
0.974933 -8.23072 8.56414 
1.62598 -8.18887 8.41317 
1.07498 -8.63327 9.01112 
0.163345 -7.84066 8.35563 
3.38289 -7.77297 7.68771 
0.338218 -7.61081 8.03458 
0.673491 -7.39808 7.76242 
0.282693 -7.58632 8.04253 
0.507613 -7.6727 8.1011 
1.06164 -8.41217 8.90178 
0.273019 -8.09707 8.53585 
2.32925 -8.73047 9.03913 
0.472698 -7.87746 8.35039 
0.103567 -8.09794 8.69058 
0.233358 -8.06833 8.5719 
1.7838 -8.13828 8.36335 
0.876303 -8.4426 8.85355 
0.242565 -7.81606 8.11896 
1.00088 -7.27206 7.64824 
1.40632 -7.58724 7.85053 
0.864649 -7.87299 8.13879 
0.609695 -8.15771 8.51477 
1.44084 -7.61676 7.76699 
0.395157 -8.3644 8.83402 
0.515058 -8.31913 8.64378 
0.513942 -8.11315 8.5139 
0.946151 -7.23936 7.74668 
1.86798 -7.63887 7.72678 
0.511685 -8.15508 8.54624 
0.501443 -8.00595 8.30835 
1.77807 -8.13053 8.35884 
0.497134 -7.76691 8.32609 
1.98431 -7.80614 7.93019 
2.11579 -8.80405 9.18433 
0.289115 -8.23321 8.70979 
0.420235 -7.98528 8.42174 
2.38761 -8.42308 8.66986 
0.841917 -8.5756 9.03341 
0.11069 -7.95057 8.48275 
0.892969 -7.23938 7.56252 
0.793027 -8.36649 8.7821 
0.330693 -7.67946 8.23449 
0.0858695 -7.80122 8.28712 
0.67213 -7.37893 7.77798 
2.31162 -7.61222 7.6419 
0.506372 -7.72687 8.25575 
1.74439 -7.34008 7.54687 
0.983242 -8.48347 8.89264 
0.95862 -8.12719 8.47142 
0.210428 -8.13075 8.66395 
2.59424 -7.58993 7.5376 
0.048222 -7.95144 8.53536 
0.514826 -7.32495 7.68699 
0.460006 -7.5543 7.99017 
2.85259 -8.01732 8.09507 
1.08582 -8.78208 9.32557 
0.486411 -7.4476 7.86326 
1.0216 -8.10093 8.40082 
0.183727 -8.04361 8.48988 
2.51851 -8.4256 8.62352 
1.53016 -7.38634 7.63523 
0.454529 -7.71399 8.29074 
0.539054 -8.08989 8.46806 
0.214681 -7.96811 8.45854 
1.2615 -8.06173 8.32324 
1.53632 -7.24749 7.45714 
1.79613 -7.20696 7.36114 
0.660165 -8.28915 8.74921 
1.7133 -7.4616 7.6624 
1.86638 -7.68619 7.84707 
0.353528 -7.36687 7.75495 
3.16661 -7.12448 7.23179 
0.59513 -7.4942 7.92761 
1.8734 -8.41218 8.75906 
3.40292 -7.35732 8.01992 
2.24055 -7.76042 7.82432 
1.90206 -8.75361 9.13071 
0.457721 -7.24549 7.47231 
0.255398 -7.87979 8.38314 
2.40561 -8.26822 8.49727 
2.14696 -7.41 7.41431 
0.91352 -8.18452 8.53618 
1.64844 -9.09879 9.52062 
0.323282 -8.05748 8.47319 
0.551147 -7.98445 8.3811 
0.346938 -8.2689 8.73874 
1.01711 -7.77152 7.98212 
0.297736 -8.1819 8.71546 
0.0991273 -7.95448 8.47174 
1.86094 -8.41229 8.75201 
1.06254 -8.63008 9.00734 
0.343833 -8.33488 8.83333 
1.00415 -7.33313 7.79795 
0.45944 -8.42147 8.87409 
2.38139 -7.62285 7.57408 
0.123548 -7.98975 8.53088 
0.596802 -8.34168 8.77077 
0.209877 -8.24217 8.78444 
0.509109 -7.62755 8.00194 
1.63603 -8.11317 8.33345 
1.91014 -8.04935 8.12977 
0.503136 -8.20838 8.67168 
0.960631 -7.16405 7.42661 
1.04279 -8.65082 8.97119 
1.01139 -7.20544 7.47938 
0.210074 -8.06794 8.58106 
0.113759 -8.18303 8.74267 
0.208604 -8.2431 8.78221 
1.38243 -7.15064 7.44878 
0.32874 -7.43961 7.86805 
-0.0157227 -8.13596 8.72302 
0.43953 -8.0963 8.49003 
0.22585 -8.04678 8.51732 
0.582687 -8.00872 8.40534 
0.417678 -7.35137 7.71965 
0.372386 -8.35933 8.84184 
0.153434 -7.82421 8.32481 
0.196484 -8.1518 8.68677 
2.24498 -8.33652 8.613 
0.901043 -8.20255 8.51015 
1.02083 -8.45644 8.82545 
0.939021 -8.01688 8.94656 
2.49101 -8.2534 8.47634 
0.110082 -7.89245 8.4018 
1.73091 -8.46133 8.83299 
1.22098 -7.88093 8.08738 
0.580669 -8.35976 8.77874 
1.25823 -7.29372 7.63925 
0.580868 -7.70625 8.22387 
0.525476 -8.01009 8.4014 
1.466 -7.14176 7.38812 
1.31406 -7.18148 7.43888 
0.696693 -7.38059 7.71649 
0.72843 -7.26233 7.57492 
0.563725 -8.3666 8.7978 
0.279495 -7.57542 8.04783 
1.61645 -7.53549 7.71397 
0.706461 -8.41062 8.81556 
0.578253 -7.46965 7.86714 
2.90385 -8.02792 8.09298 
0.383359 -7.71078 8.26666 
3.15878 -7.35247 7.03806 
2.16172 -7.56849 7.66239 
0.947753 -7.69585 8.00152 
0.641146 -8.06486 8.4861 
0.432847 -8.09773 8.48819 
1.46613 -7.10213 7.36306 
1.05954 -8.44004 8.89956 
0.506321 -8.17474 8.58267 
3.29514 -7.63239 7.52942 
0.512288 -7.72468 8.25934 
1.27852 -7.98337 8.18098 
0.851331 -8.25436 8.63078 
2.42179 -8.38205 8.62755 
1.38954 -7.1998 7.50836 
0.351249 -8.01084 8.45977 
2.72866 -7.64489 7.55672 
0.711201 -7.47284 7.81023 
0.973227 -8.25492 8.61601 
0.561807 -7.27916 7.63171 
0.871563 -8.26387 8.55161 
1.45736 -8.53143 8.93297 
2.27501 -8.66881 8.96011 
0.50718 -7.68902 8.17267 
1.22733 -7.1801 7.48377 
0.741564 -8.42057 8.85246 
0.923077 -8.09606 8.43626 
0.105404 -8.0888 8.67442 
0.184404 -8.02819 8.50212 
0.740732 -8.18495 8.60335 
0.27005 -8.17428 8.69971 
0.0130471 -8.02801 8.60296 
0.271973 -8.18017 8.65277 
0.409274 -7.82425 8.32519 
2.00064 -7.67189 7.76012 
0.19265 -7.88251 8.38089 
1.65114 -8.61529 9.04508 
0.854958 -8.45302 8.86197 
0.231006 -8.12898 8.64159 
0.588162 -8.48052 8.9423 
0.90247 -8.05909 8.42021 
0.460623 -7.35751 7.75341 
1.82682 -8.94803 9.37535 
0.745421 -7.3535 7.69403 
0.828523 -7.26986 7.5899 
0.835885 -8.22031 8.55853 
0.246482 -8.1743 8.71006 
0.653802 -8.00489 8.35301 
1.86624 -7.19709 7.24854 
2.42141 -9.06321 9.40195 
1.31077 -7.23902 7.55037 
0.695103 -7.81949 8.18103 
0.106391 -8.0899 8.67622 
0.995019 -8.43899 8.82665 
0.665175 -7.36589 7.751 
1.55563 -7.21725 7.31244 
1.89394 -7.58831 7.70165 
2.1824 -8.06041 8.24685 
3.05257 -7.37328 7.08988 
0.973641 -8.66465 9.30727 
2.02099 -8.74899 9.12724 
0.955421 -7.73975 8.00965 
0.114282 -7.81285 8.33888 
0.924494 -7.95692 8.22997 
0.390879 -8.37268 8.86787 
2.56461 -8.87812 9.19767 
1.71106 -8.66295 9.15026 
2.99957 -7.39634 7.09653 
0.988585 -7.23021 7.54583 
2.97154 -7.64396 7.58052 
2.52334 -7.63596 7.62129 
1.31911 -8.35911 8.67177 
0.564273 -7.70416 8.25546 
2.03929 -8.02623 8.23393 
0.767653 -8.23618 8.73374 
2.62209 -7.85848 7.90658 
1.528 -7.33126 7.49113 
2.52181 -8.09234 8.26681 
1.84292 -7.15209 7.17213 
0.692797 -8.47095 8.87481 
0.94963 -7.29046 7.67541 
3.26204 -7.4915 7.41084 
0.160538 -7.92929 8.43268 
0.845599 -7.18986 7.39292 
2.28664 -8.94467 9.31277 
0.701786 -7.44838 7.84437 
0.412612 -8.40521 8.90105 
2.39648 -8.60776 8.86935 
0.0429227 -8.14017 8.72892 
2.1655 -8.43029 8.75817 
1.14993 -7.81665 8.00026 
0.551194 -7.51715 7.93692 
0.56481 -7.36551 7.73485 
3.41565 -7.60574 7.43212 
0.450659 -8.16122 8.60427 
0.416566 -7.40507 7.7483 
0.893511 -8.27201 8.54025 
1.32125 -7.35107 7.62867 
1.74609 -8.25146 8.51475 
0.94406 -7.30961 7.67612 
1.15029 -7.28939 7.65237 
0.769351 -7.57763 8.07277 
0.276902 -8.19253 8.69681 
1.9452 -8.30917 8.52277 
1.87909 -7.28894 7.42118 
1.98536 -8.48712 8.7984 
0.548408 -7.81265 8.53916 
0.267672 -8.18171 8.64793 
0.476879 -8.24834 8.67892 
1.69925 -7.78517 7.99523 
0.709056 -8.28582 8.69242 
1.14461 -7.95631 8.24933 
0.758062 -8.62531 9.15545 
0.276366 -8.10592 8.55137 
2.14154 -8.7859 9.15732 
0.97012 -8.41745 8.82475 
0.223214 -7.89647 8.38927 
0.39656 -8.42545 9.0294 
0.391378 -8.46001 8.99186 
0.957691 -7.26864 7.62253 
0.272236 -7.8636 8.34272 
3.08504 -7.72614 7.71834 
1.25606 -8.39553 8.72937 
1.74236 -8.45824 8.83646 
0.444411 -7.71637 8.16173 
0.512587 -8.41558 8.86407 
2.96444 -8.35755 8.40539 
1.18832 -8.57342 8.95482 
0.925798 -8.06053 8.35073 
2.36426 -8.10403 8.28869 
0.886455 -7.17239 7.43573 
0.154894 -8.21517 8.84638 
0.535357 -7.27609 7.64242 
1.01105 -7.81685 8.05783 
0.441218 -7.40718 7.83938 
2.17535 -8.90695 9.28841 
1.15231 -8.81764 9.34732 
1.42746 -8.92727 9.5086 
0.709949 -8.2894 8.68151 
0.907978 -8.18525 8.5315 
0.858238 -8.62714 9.3157 
0.105705 -8.11507 8.70765 
0.152978 -8.21867 8.84598 
0.22805 -8.31313 8.85909 
0.856137 -8.25486 8.63704 
0.186703 -7.82904 8.32857 
0.93991 -7.26559 7.55861 
0.192957 -8.033 8.55285 
1.44064 -8.26247 8.54101 
0.419845 -7.93546 8.39837 
0.42597 -8.43658 8.94559 
1.62297 -8.50263 8.88987 
3.06719 -7.72906 7.6691 
1.44278 -7.58114 7.83644 
0.105578 -8.09623 8.68181 
1.41221 -7.90341 8.06569 
0.775564 -7.44902 7.8081 
1.72123 -7.90978 8.09153 
0.688174 -7.9578 8.29959 
0.289752 -8.23146 8.70929 
1.81439 -7.26735 7.40339 
1.50557 -8.67989 9.0943 
0.261873 -8.08568 8.56065 
0.225642 -7.9469 8.42144 
0.772369 -7.43626 7.82565 
1.44869 -7.80441 8.01276 
0.613487 -7.77684 8.23947 
0.517394 -7.86547 8.35038 
0.829793 -8.25754 8.61784 
0.943528 -7.29623 7.67153 
0.33141 -8.42243 8.97856 
0.703342 -7.38557 7.74104 
0.505748 -8.10317 8.50457 
1.32896 -7.13236 7.33144 
1.43798 -7.92484 8.07726 
1.98779 -8.35514 8.59065 
0.399102 -7.46787 7.88698 
2.60876 -7.37736 7.3732 
0.78601 -7.27292 7.61031 
1.26805 -7.28476 7.63878 
2.66845 -8.0984 8.25688 
0.996536 -8.67081 9.32166 
2.74232 -7.6482 7.57502 
0.620006 -8.54604 9.00608 
0.792362 -8.57574 9.08019 
0.731698 -8.34837 8.77101 
0.593197 -8.3386 8.76014 
1.34378 -8.64219 9.0282 
1.88924 -9.07211 9.54943 
1.30371 -8.91391 9.4058 
1.25267 -8.73653 9.16759 
1.65481 -9.00289 9.47565 
1.44723 -8.41669 8.74964 
2.04854 -7.41212 7.57709 
2.99523 -8.45296 8.75283 
2.68058 -8.67979 8.91984 
2.37809 -8.70671 8.97583 
1.35681 -8.42833 8.72143 
0.670104 -8.47 8.85882 
0.110801 -8.0909 8.68289 
0.149559 -8.22104 8.84465 
0.588914 -8.35772 8.781 
0.2279 -8.31348 8.85852 
0.26926 -8.08435 8.52542 
1.29053 -8.29683 8.62049 
0.335124 -8.07729 8.52098 
1.77048 -7.72797 7.87281 
2.31117 -7.69774 7.74201 
2.27683 -7.725 7.83977 
2.52409 -7.96127 8.09095 
2.88445 -7.44093 7.30138 
0.334844 -7.43307 7.85983 
1.16648 -8.48277 8.8205 
0.412579 -7.71151 8.22251 
0.567725 -8.01709 8.36866 
0.603831 -7.78312 8.25178 
0.359958 -7.99285 8.45039 
0.339748 -7.30353 7.58811 
1.32742 -7.20712 7.49256 
3.65446 -7.48296 7.33549 
2.36548 -7.77252 7.77234 
0.722603 -8.28347 8.69274 
2.09264 -9.09843 9.6731 
1.4031 -7.30118 7.53003 
0.48856 -8.46271 9.04973 
0.528854 -8.49066 9.11225 
0.391998 -7.90564 8.41153 
1.63965 -9.09285 9.47328 
0.114999 -7.959 8.50508 
0.880339 -7.99427 8.31181 
3.03634 -7.41989 7.16284 
0.407463 -7.52287 7.9247 
0.799593 -8.50709 8.95716 
0.39679 -7.73223 8.28803 
0.0201327 -8.20426 8.79524 
2.76494 -8.32875 8.39409 
0.672239 -8.35594 8.74357 
2.50644 -8.49468 8.75043 
0.239556 -8.18545 8.71685 
2.79531 -8.09846 8.18504 
0.388236 -7.34996 7.69844 
1.87349 -9.07031 9.53786 
1.26353 -7.88871 8.1099 
0.532648 -8.4547 8.9378 
1.09229 -8.12669 8.43486 
1.91147 -8.42585 8.76539 
2.0157 -7.86297 8.00455 
2.97237 -7.96977 8.05682 
0.509831 -8.17417 8.58305 
1.34005 -8.81939 9.26836 
0.459031 -7.44704 7.87587 
1.88309 -8.57973 8.90554 
1.22682 -8.04428 8.28907 
1.95595 -8.71874 9.10705 
2.9182 -8.48424 8.59124 
1.29677 -7.44816 7.75064 
2.21599 -8.09992 8.2561 
0.696817 -7.45063 7.84074 
3.06571 -7.30945 7.14362 
1.71321 -7.25727 7.36274 
2.55381 -8.20882 8.41454 
0.257851 -7.91451 8.51483 
1.71392 -8.53501 8.90847 
0.338934 -8.34202 8.86165 
0.468492 -8.20662 8.65369 
0.14618 -8.25364 8.76873 
1.3503 -8.83131 9.26931 
2.285 -7.78454 7.82703 
0.718972 -7.42626 7.75894 
0.768221 -8.508 8.94356 
2.04633 -8.46962 8.80572 
2.32987 -8.73083 9.03876 
0.578963 -8.25882 8.68615 
0.427652 -7.41407 7.83343 
0.060221 -8.13396 8.74507 
3.09664 -7.96456 7.94083 
1.52081 -7.49635 7.68761 
1.44058 -7.42537 7.64694 
0.356192 -8.05159 8.49426 
0.291925 -8.33116 8.85204 
1.35123 -7.20923 7.4612 
2.31726 -7.99318 8.1363 
0.452056 -8.4325 8.96964 
0.704724 -8.00639 8.39014 
0.446283 -8.50769 9.13603 
2.01881 -8.60506 8.92905 
0.276486 -8.48101 8.96727 
0.416219 -8.23327 8.69743 
0.599886 -7.6975 8.22652 
0.6295 -7.29677 7.54096 
0.332833 -8.17602 8.61565 
0.804527 -8.50675 9.00446 
1.3009 -7.20224 7.48568 
1.93775 -9.40143 9.80645 
1.23467 -8.30962 8.74487 
0.454573 -8.34777 8.77217 
0.359878 -7.3687 7.80173 
0.396601 -7.36905 7.78715 
0.262679 -8.17846 8.71196 
0.535354 -8.44653 8.91319 
3.32797 -7.61798 7.53311 
0.535608 -8.41242 8.85318 
2.50704 -8.02974 8.19494 
1.33685 -7.23872 7.52456 
0.687269 -7.39518 7.76745 
2.65705 -7.47203 7.40695 
0.434914 -7.47162 7.90317 
1.59874 -8.55046 8.94483 
3.0976 -7.55747 7.47796 
2.18438 -9.18175 9.69211 
1.27445 -8.30523 8.62486 
1.714 -8.53447 8.90743 
2.28251 -8.30612 8.57239 
0.0692042 -8.13055 8.75682 
0.749139 -8.07458 8.45401 
2.20535 -7.6472 7.63913 
0.51654 -8.10049 8.50976 
2.21008 -8.13719 8.32204 
1.31576 -7.78182 7.97439 
3.42537 -7.76157 7.69094 
3.06027 -8.2451 8.32603 
0.995167 -8.66741 9.31914 
2.74156 -7.32222 7.04352 
0.837488 -7.65064 8.10751 
0.430042 -7.3822 7.79102 
0.713589 -7.27441 7.5751 
0.711882 -8.28996 8.68483 
0.744674 -7.40941 7.76488 
1.93841 -8.34646 8.58403 
0.929505 -8.28783 8.635 
0.747739 -8.73832 9.20226 
1.25976 -8.30697 8.61471 
1.67403 -8.61927 9.08962 
0.979239 -8.23064 8.5672 
1.91796 -8.57236 8.88655 
0.213901 -8.26742 8.84752 
0.145461 -8.14661 8.70912 
0.38492 -7.36612 7.77687 
0.489828 -8.53275 9.06571 
0.41108 -8.43888 8.92872 
1.79525 -7.57802 7.72881 
0.241478 -8.38476 8.9534 
0.252701 -8.11841 8.63727 
0.387473 -7.37354 7.71284 
0.597528 -8.01001 8.38918 
1.98096 -8.09728 8.30204 
1.39151 -7.72523 7.9277 
0.883589 -8.55489 8.95391 
1.93564 -7.27327 7.40074 
1.92043 -7.16995 7.24647 
0.85924 -8.36726 8.85279 
2.10223 -7.25421 7.22416 
3.12781 -7.51122 7.40306 
0.740211 -7.69758 8.15074 
0.273222 -7.86184 8.34416 
0.470494 -7.3289 7.62984 
0.965995 -7.28244 7.67506 
0.905686 -8.17069 8.51017 
0.149601 -8.22299 8.84681 
1.37335 -9.07631 9.44657 
2.30249 -8.79032 9.11757 
0.286493 -8.27201 8.76108 
0.503983 -8.10781 8.50021 
0.203015 -7.94316 8.44158 
2.3266 -8.73152 9.03429 
0.480064 -7.61956 8.0216 
0.440304 -8.2799 8.68807 
0.187314 -8.148 8.68267 
0.520888 -8.4179 8.85919 
1.66581 -7.24096 7.40655 
2.1736 -7.86731 7.89587 
0.473707 -8.52465 9.15263 
2.27107 -8.31238 8.59235 
0.790199 -7.28193 7.5211 
0.955447 -8.67245 9.19295 
1.57691 -8.9249 9.54296 
1.01224 -7.3319 7.74436 
0.652744 -7.65896 8.15939 
0.90542 -7.33155 7.885 
1.47019 -7.76666 7.83088 
0.67836 -8.06612 8.45947 
0.624603 -7.68414 8.19063 
1.21421 -7.20738 7.49702 
2.43444 -7.94047 8.03742 
0.568927 -7.86236 8.2942 
0.394725 -8.1142 8.52281 
0.369258 -8.4019 9.00738 
0.266 -7.8732 8.38401 
0.879406 -8.57309 8.95564 
1.05013 -8.44955 8.85682 
0.801725 -8.57176 9.0853 
0.592398 -8.50509 9.03746 
1.68536 -8.36607 8.68632 
0.202723 -8.18292 8.69177 
1.71354 -8.42002 8.75504 
1.34026 -7.87831 8.10292 
1.23779 -7.95199 8.1251 
0.420743 -8.24935 8.6857 
1.47612 -8.51887 8.91625 
0.317017 -8.3877 8.99546 
1.86191 -9.02102 9.57285 
0.673749 -7.73676 8.17234 
0.275836 -8.43045 9.06056 
0.278268 -8.42875 9.06101 
3.38391 -7.80062 7.65548 
1.29003 -8.8346 9.46422 
0.318576 -8.41945 9.03526 
1.69187 -8.66364 9.13857 
0.351744 -8.25225 8.71329 
1.31192 -8.94094 9.5677 
0.656138 -8.54116 9.039 
0.0923568 -8.05056 8.60706 
1.61836 -9.04657 9.66969 
0.329028 -8.17563 8.61254 
1.11874 -7.67144 7.88103 
0.616372 -7.95202 8.28809 
1.67281 -7.64324 7.80662 
0.706911 -8.6826 9.30939 
0.349438 -8.44824 8.98572 
0.849931 -7.92272 8.25262 
1.6967 -8.07841 8.27946 
1.89449 -8.95668 9.3715 
0.597137 -7.43387 7.80616 
1.62751 -8.57472 8.94122 
1.24456 -8.5195 8.84355 
1.68143 -9.11783 9.69078 
2.24067 -8.01394 8.16109 
2.18377 -9.31904 9.91224 
2.74172 -8.14131 8.27756 
2.95521 -7.83955 7.87928 
3.1744 -7.6178 7.4982 
0.398228 -7.51923 7.90993 
2.16572 -8.61676 8.91382 
3.23789 -8.31396 8.33463 
1.39943 -8.90331 9.41765 
1.95121 -8.29249 8.51835 
0.583574 -8.5082 9.02919 
1.18757 -8.92277 9.57614 
1.84157 -9.04176 9.56667 
2.09778 -7.59111 7.68877 
0.767303 -8.20859 8.78551 
1.185 -8.89174 9.49353 
0.496831 -8.45593 9.05206 
2.13835 -8.62386 8.93202 
0.39057 -8.37398 8.86701 
1.14387 -7.3631 7.76956 
2.30788 -9.09195 9.42665 
1.51304 -7.75889 8.07459 
1.02015 -8.10456 8.40459 
1.73795 -8.96897 9.59617 
1.9645 -8.85564 9.25628 
0.324816 -8.35801 8.994 
1.20168 -8.03253 8.29655 
0.517889 -8.10087 8.50825 
0.590567 -8.50604 9.03502 
0.551459 -8.45692 8.95065 
0.503127 -8.5471 9.17887 
1.28203 -8.71154 9.19468 
2.34182 -7.7848 7.78203 
0.662126 -8.5634 9.1183 
0.857459 -8.66483 9.33187 
1.27404 -8.95608 9.55311 
1.23734 -7.89625 8.14089 
0.571907 -8.52996 9.05915 
0.161316 -8.36779 9.02936 
0.903327 -8.37808 8.75918 
0.294141 -8.39347 9.00278 
0.689338 -8.61646 9.30518 
0.297399 -8.3928 9.00259 
0.185247 -8.24381 8.81899 
1.00467 -8.46125 8.8534 
0.544888 -7.67831 8.19942 
0.506676 -8.4622 9.06865 
1.52655 -8.89621 9.53487 
1.12241 -8.06025 8.33454 
0.648235 -8.25624 8.62371 
2.6272 -8.35905 8.53872 
0.970122 -7.75777 8.04668 
2.36783 -8.34301 8.59402 
0.517332 -8.07032 8.43625 
0.145295 -8.14815 8.70961 
0.971484 -7.4074 7.86157 
0.422859 -8.0959 8.51428 
0.253632 -7.86231 8.37259 
0.400964 -7.90878 8.42431 
1.57905 -8.66602 9.12728 
0.571994 -7.80182 8.2426 
0.539561 -7.84075 8.29602 
0.612334 -7.45703 7.85909 
0.60635 -8.49521 8.95069 
1.74569 -7.92567 8.09631 
1.36648 -8.71098 9.14943 
2.14692 -8.62517 8.92743 
0.211691 -8.13058 8.66251 
0.708127 -8.41254 8.81925 
1.40649 -7.77839 7.89423 
1.72965 -8.65301 9.13305 
0.559631 -7.3649 7.76179 
0.527796 -7.96257 8.37232 
0.341052 -8.46797 9.09857 
1.99501 -8.35409 8.59416 
0.204128 -7.93913 8.44154 
0.534544 -8.03158 8.41211 
0.503956 -8.43067 8.90931 
2.87808 -8.13929 8.21012 
0.570184 -8.5294 9.05086 
0.572448 -7.8582 8.30299 
0.380804 -8.46276 9.09317 
0.45552 -8.0626 8.46772 
0.213642 -8.26457 8.84705 
0.187236 -8.20426 8.74861 
1.32877 -8.71743 9.1321 
0.668521 -7.98451 8.34318 
0.675891 -8.4869 8.9023 
0.427434 -7.94771 8.40364 
1.63882 -8.62694 9.07228 
0.209428 -8.37167 9.02183 
0.547138 -8.54341 9.14044 
2.16408 -9.2421 9.8344 
0.409563 -8.57602 9.20817 
0.915576 -8.74312 9.3535 
0.842442 -8.63306 9.31591 
2.62627 -8.53367 8.68371 
2.06373 -8.66812 9.02807 
0.707186 -7.83912 8.2119 
0.39698 -8.51474 9.142 
2.12439 -9.03442 9.43667 
0.529937 -7.73418 8.29965 
0.715121 -8.72346 9.42767 
2.89571 -8.30732 8.39037 
1.97419 -8.12643 8.34893 
0.681147 -8.59846 9.2106 
0.275272 -8.17368 8.72366 
3.08572 -8.22431 8.23196 
2.27188 -8.26985 8.507 
1.34919 -8.83197 9.35148 
1.526 -8.67776 9.10918 
0.253825 -8.24774 8.75576 
2.38972 -8.19137 8.42709 
0.703129 -8.20373 8.59394 
0.561278 -8.45251 8.95049 
0.649476 -7.98691 8.38807 
0.508532 -8.15976 8.54582 
0.186943 -8.35906 8.99504 
1.63199 -8.32343 8.6226 
0.46545 -7.75028 8.30663 
0.893977 -8.5286 8.91047 
1.87996 -8.60631 8.95535 
2.19639 -8.79861 9.14884 
2.37712 -8.18576 8.41547 
0.700261 -8.1779 8.55993 
2.23547 -8.33921 8.61318 
1.10001 -8.3361 8.7639 
2.80413 -7.56569 7.43911 
2.23981 -8.10495 8.28028 
1.72184 -9.04491 9.64161 
0.256491 -8.25354 8.74903 
1.95599 -8.14353 8.34994 
2.60585 -8.05398 8.21387 
1.19804 -9.03269 9.68178 
0.372874 -8.40824 8.99438 
1.55799 -8.46908 8.85249 
1.2546 -8.90567 9.59482 
0.321558 -8.50774 9.18441 
2.84174 -8.20478 8.24307 
0.411308 -8.57472 9.20809 
0.477359 -7.72684 8.28501 
1.17129 -8.92363 9.61146 
1.73834 -8.34575 8.6306 
1.57677 -8.56531 8.95739 
0.0770364 -8.27341 8.94372 
0.189977 -8.44026 9.08721 
0.388168 -8.113 8.52025 
1.05687 -8.42169 8.80288 
0.457963 -8.2446 8.68465 
0.462657 -8.27127 8.67467 
0.593616 -8.41402 8.82512 
1.22559 -8.79044 9.43959 
0.700228 -8.729 9.41471 
0.462445 -8.59655 9.24958 
0.55763 -8.46445 8.9295 
1.62361 -8.50798 9.02037 
1.82369 -8.90628 9.32252 
1.94279 -9.1249 9.73076 
1.37403 -8.82415 9.24745 
2.68038 -8.31 8.46555 
0.603921 -8.0872 8.55908 
1.78438 -8.31124 8.59273 
0.345387 -8.17175 8.60176 
0.419158 -8.25366 8.68452 
1.21666 -8.13363 8.32493 
1.29919 -8.17539 8.4628 
1.04809 -8.63983 8.99756 
1.70919 -7.93311 8.10762 
1.31724 -8.3556 8.6629 
2.53366 -8.40136 8.60727 
1.32808 -8.65008 9.01915 
1.10194 -8.44079 8.81974 
1.81181 -9.00781 9.57467 
0.83187 -8.19045 8.56073 
0.487295 -8.57902 9.22857 
0.542706 -8.44899 8.9175 
0.368411 -8.00472 8.45603 
0.157112 -8.24449 8.88354 
0.556783 -8.30792 8.73296 
1.07268 -7.66681 7.94089 
0.244451 -8.48616 9.12932 
1.01037 -8.43954 8.83253 
1.64721 -7.77304 7.91623 
0.543176 -8.05104 8.42157 
0.15408 -8.4182 9.08212 
0.178948 -8.42358 9.06878 
1.87793 -8.30888 8.50066 
0.902826 -8.39964 8.79333 
1.08267 -8.15829 8.48034 
1.09001 -7.33156 7.62195 
2.72525 -8.81206 9.04239 
0.714693 -8.6066 9.4089 
0.250332 -8.42283 9.06543 
0.652903 -8.1493 8.55154 
0.453322 -8.51728 9.12693 
0.290912 -8.46201 9.09257 
0.27271 -8.38302 8.98246 
0.258679 -8.42048 9.06438 
0.42513 -8.17004 8.57096 
1.99364 -8.78482 9.1752 
2.34342 -7.95406 8.02412 
0.510635 -8.16994 8.59205 
0.736698 -7.71124 8.14317 
0.98808 -8.67934 9.3187 
0.315516 -8.42682 8.97815 
0.816181 -8.4912 8.94925 
1.4232 -8.37166 8.69184 
0.239462 -8.42443 9.06139 
1.93085 -8.7561 9.14865 
0.413645 -8.33309 8.77346 
1.09127 -8.48644 8.85251 
1.40672 -8.96134 9.53012 
0.473543 -8.3058 8.689 
0.474226 -8.19962 8.64784 
2.23808 -9.41769 10.0079 
1.24094 -8.94066 9.56577 
2.136 -8.09797 8.32009 
0.360776 -8.38159 8.99771 
3.33917 -8.24173 8.23656 
0.502487 -8.4171 8.85712 
1.21037 -8.79016 9.43262 
1.54498 -9.02231 9.63152 
1.37493 -8.57095 8.92777 
0.164276 -8.44035 9.13943 
0.96118 -8.71584 9.30936 
0.728121 -7.59952 8.06602 
0.796892 -8.60404 9.17567 
2.43871 -8.47532 8.69096 
2.78115 -8.60828 8.78873 
0.913511 -8.85468 9.56778 
2.38668 -8.70159 8.96882 
0.289272 -8.18 8.69568 
1.29986 -8.82707 9.4677 
0.937719 -7.75452 8.05058 
1.52625 -8.47791 8.83992 
0.920677 -7.8835 8.16391 
0.999214 -8.42415 8.76399 
0.27488 -8.50588 9.16926 
0.363335 -8.58669 9.24566 
0.137982 -8.27859 8.91567 
2.20542 -7.8528 7.9022 
1.33263 -8.20933 8.49878 
1.46609 -7.8327 8.03527 
1.08201 -7.47917 7.77268 
0.240222 -8.29447 8.78668 
0.789917 -8.57781 9.07884 
1.69936 -9.0728 9.65589 
1.25745 -8.20127 8.49572 
0.128053 -8.37412 9.05084 
0.854178 -8.78594 9.46055 
0.415668 -7.6935 8.20761 
0.876735 -8.0651 8.45257 
0.88279 -8.63087 9.2775 
0.516288 -8.41065 8.82745 
0.196626 -8.38057 9.01336 
2.58779 -8.05681 8.21 
0.736938 -7.70244 8.14808 
0.204595 -8.24362 8.77866 
2.49434 -7.39806 7.38903 
3.01383 -7.5751 7.58792 
0.552344 -7.57484 7.99501 
2.9021 -8.18051 8.25327 
0.778111 -8.81554 9.5316 
0.116255 -8.46837 9.14492 
0.896887 -8.77743 9.47756 
2.90306 -8.29278 8.37978 
1.24623 -8.92599 9.583 
0.211182 -8.24301 8.78185 
0.390049 -8.18556 8.68504 
1.09808 -8.74195 9.26328 
1.85488 -8.58453 9.08849 
2.45833 -7.77105 7.72481 
0.567411 -8.57138 9.14007 
2.42516 -7.96196 8.13906 
2.02955 -8.91745 9.31794 
0.320879 -8.53385 9.15264 
2.56768 -7.90464 7.98472 
0.434771 -8.51258 9.1315 
1.07683 -8.70418 9.23837 
0.199285 -8.36647 9.03302 
0.280507 -8.54477 9.22683 
2.3235 -9.34717 9.93789 
1.54188 -9.00052 9.63718 
2.21788 -9.29522 9.87748 
0.273116 -8.39463 9.02487 
0.591397 -8.49914 8.95338 
0.444217 -8.15939 8.59494 
1.43059 -8.30954 8.57619 
0.55823 -8.36393 8.80552 
0.603439 -8.39768 8.80744 
2.34375 -8.20207 8.42125 
0.35746 -8.19884 8.6813 
0.42948 -8.18966 8.67333 
0.749544 -8.74242 9.43096 
0.141584 -8.32145 8.97667 
1.95962 -8.92149 9.33828 
2.43691 -7.9759 8.11989 
1.38555 -7.8276 8.05492 
1.97965 -8.72042 9.10631 
0.422374 -8.62772 9.34248 
0.836781 -8.74594 9.43743 
0.0942866 -8.36151 9.0464 
2.26189 -8.27241 8.5089 
1.09087 -8.30725 8.66477 
1.06405 -8.08368 8.42583 
0.17923 -8.52182 9.22578 
1.50001 -8.6602 9.08125 
0.702448 -8.76318 9.48971 
0.200089 -8.56385 9.29364 
0.328367 -8.54218 9.14749 
1.01932 -8.81669 9.42069 
0.397223 -8.55471 9.08785 
0.343356 -8.63867 9.361 
1.0195 -8.81629 9.41857 
0.671359 -8.24757 8.6684 
1.33036 -8.91646 9.5288 
0.743329 -8.74164 9.44373 
1.9981 -8.23104 8.46708 
0.93967 -8.03646 8.33705 
0.749256 -8.40013 8.80953 
0.140774 -8.32291 8.97748 
0.306195 -8.38345 9.00673 
2.52009 -9.09834 9.48016 
0.342416 -8.40786 9.00724 
0.119478 -8.21961 8.86581 
1.46552 -8.41182 8.74629 
2.2752 -9.38769 9.98461 
0.902215 -8.86585 9.56227 
2.7045 -8.38088 8.53012 
2.51285 -7.91235 7.97604 
1.20051 -8.00687 8.28564 
1.65144 -9.06999 9.65723 
0.98775 -8.87087 9.54167 
1.34402 -8.8141 9.29448 
0.905464 -8.33909 8.69469 
0.773711 -8.51252 8.9462 
0.381405 -8.5871 9.25573 
0.162691 -8.36382 9.02849 
1.69598 -9.16247 9.81221 
2.07343 -8.11892 8.31148 
1.72077 -9.28814 9.90218 
2.65601 -8.64643 8.87507 
1.10304 -8.70008 9.248 
0.831665 -8.80445 9.50159 
2.15231 -8.59161 8.88921 
2.30606 -8.53601 8.75996 
1.76445 -8.31185 8.59005 
3.10809 -8.42374 8.46361 
0.481847 -8.47563 9.11331 
1.54596 -8.60457 9.01576 
1.18 -8.0116 8.29274 
1.365 -8.83137 9.26996 
0.900527 -7.57257 7.97429 
0.526226 -8.11046 8.50526 
0.285113 -8.27257 8.7642 
0.425959 -8.33261 8.76129 
1.38834 -7.8277 8.05667 
0.883633 -8.80496 9.48971 
3.27236 -7.79848 7.67244 
0.147765 -8.14571 8.70996 
0.734962 -7.80422 8.19483 
0.130156 -8.3061 8.94955 
0.565218 -8.37116 8.80043 
0.173993 -8.41319 9.0973 
0.176913 -8.29507 8.91079 
1.8078 -8.94732 9.35817 
1.2902 -7.80392 7.98192 
0.809335 -8.37669 8.79841 
0.205767 -8.35037 9.00766 
0.612473 -7.9875 8.37908 
0.517289 -7.68688 8.18849 
2.01485 -8.49007 8.8105 
0.966592 -7.63576 7.97767 
0.522355 -8.4814 9.05515 
2.2401 -7.86322 7.91042 
0.330531 -8.37525 8.93074 
1.15386 -8.06158 8.33071 
0.847224 -7.69034 8.08549 
1.03929 -7.68704 7.93768 
1.00841 -7.78261 8.02523 
1.26834 -8.13355 8.37567 
0.189573 -8.41141 9.06148 
0.288991 -8.06882 8.56959 
0.204259 -8.1211 8.64239 
1.64048 -8.61336 9.03963 
0.76682 -8.04051 8.42733 
0.330632 -8.49124 9.14744 
1.22343 -8.47035 8.78602 
1.99178 -9.0641 9.69416 
1.78406 -7.7157 7.85814 
0.337861 -8.41014 9.00683 
1.00854 -7.98336 8.25506 
1.04022 -8.71024 9.35926 
0.705158 -8.51173 8.93271 
0.0816008 -8.39155 9.07085 
2.18194 -8.86604 9.26234 
0.501478 -8.42467 8.8363 
2.40513 -8.36798 8.62974 
0.734099 -8.64893 9.32827 
0.520931 -8.57471 9.20798 
0.998247 -7.82951 8.06275 
0.42392 -8.24881 8.68655 
1.28001 -8.94036 9.54621 
0.646124 -8.84395 9.57432 
2.62121 -9.39774 9.98881 
2.02332 -8.12103 8.32146 
0.537441 -8.75379 9.49118 
0.882632 -8.80617 9.49139 
0.830376 -8.88775 9.58613 
0.114898 -8.48544 9.22114 
0.162019 -8.50338 9.24515 
0.483904 -8.54444 9.17089 
0.501109 -8.56211 9.19526 
0.215321 -8.37839 9.02017 
0.297829 -8.56883 9.30761 
1.59554 -9.07104 9.70255 
0.256548 -8.59608 9.33229 
0.956303 -8.85873 9.56751 
0.87067 -7.96786 8.29043 
2.08749 -8.68824 9.03246 
1.99719 -7.69581 7.82046 
2.0084 -8.76502 9.15289 
2.58993 -9.1504 9.48378 
0.983402 -8.44914 8.82603 
0.532701 -7.69857 8.23258 
0.535827 -8.67125 9.41228 
0.202152 -8.215 8.74822 
0.355781 -8.50654 9.14056 
0.681504 -8.79003 9.52214 
1.96279 -7.90456 8.02429 
0.381386 -8.29899 8.75594 
2.6242 -7.9008 7.98068 
0.608773 -8.73504 9.45667 
1.97038 -8.72186 9.10284 
2.69953 -8.59266 8.8211 
0.290218 -8.56963 9.30177 
0.253313 -8.59658 9.32996 
0.329049 -8.60967 9.33911 
2.63611 -8.12483 8.29661 
0.583604 -8.42452 8.8483 
0.243537 -8.15124 8.66726 
0.203355 -8.40548 9.05272 
1.0474 -8.32717 8.68821 
0.287624 -8.56464 9.24897 
0.661209 -8.86976 9.60429 
2.40138 -8.42379 8.6746 
0.884031 -8.87202 9.56315 
0.757587 -7.81277 8.18045 
1.09846 -9.11919 9.74327 
0.571475 -8.35944 8.76957 
0.238587 -8.45291 9.0904 
1.20377 -9.03866 9.69499 
2.61228 -9.39861 9.98388 
0.0889185 -8.47629 9.20086 
1.36824 -9.03563 9.64969 
1.54437 -8.90688 9.49249 
0.58421 -8.62473 9.37468 
0.269473 -8.40347 9.02635 
0.244629 -8.12514 8.6442 
1.78928 -8.98321 9.41222 
0.605089 -8.56844 9.09714 
1.69225 -9.07437 9.65217 
0.558944 -8.27268 8.68437 
1.32285 -8.94588 9.59647 
0.710759 -8.22734 8.62811 
1.79719 -8.2272 8.50567 
0.600201 -8.00686 8.38306 
0.940988 -8.6416 9.31011 
0.240344 -8.62488 9.38924 
0.966558 -8.87059 9.57833 
1.34454 -8.81305 9.29442 
0.111168 -8.33049 8.98015 
2.30945 -7.78959 7.7775 
1.25913 -8.43329 8.75111 
1.56323 -7.76155 7.87194 
0.692435 -8.78981 9.52909 
1.27965 -8.18655 8.49696 
0.413514 -8.72511 9.49264 
1.08336 -8.31005 8.66327 
1.37066 -8.31925 8.62225 
1.58756 -8.9207 9.54097 
0.514456 -7.76339 8.2599 
2.18027 -9.03181 9.40638 
1.26417 -8.24405 8.55416 
0.907264 -8.63456 9.29013 
2.14831 -8.82985 9.21356 
1.67058 -8.6458 9.11227 
0.229555 -8.06191 8.56779 
1.24123 -8.42013 8.75746 
1.81454 -8.09482 8.28199 
0.102759 -8.46515 9.08574 
0.639176 -8.76412 9.50181 
1.67552 -9.07669 9.6499 
0.83937 -8.89668 9.60163 
0.280285 -8.42985 9.05878 
0.464566 -8.20359 8.65415 
0.319948 -8.61569 9.33257 
0.171178 -8.0782 8.59784 
0.426393 -8.57258 9.2339 
0.367915 -8.58553 9.24746 
2.51889 -8.35488 8.54121 
1.41938 -7.96471 8.13672 
1.66443 -9.24378 9.87715 
1.69061 -8.78776 9.28374 
0.726742 -8.34218 8.88562 
1.1365 -8.15462 8.37354 
1.30401 -8.95893 9.56617 
0.833944 -8.9002 9.60094 
0.517932 -8.16069 8.54101 
1.48333 -8.37442 8.66424 
2.40368 -8.18294 8.42195 
2.19162 -9.32878 9.92792 
1.69723 -9.16408 9.81482 
1.92497 -8.34206 8.57009 
0.738719 -7.84302 8.21452 
0.296392 -8.64143 9.39248 
2.23167 -9.15422 9.58721 
0.61767 -8.57811 9.09313 
0.200769 -8.1221 8.64718 
2.00408 -9.19379 9.81024 
1.80517 -9.32072 9.93895 
0.755226 -8.59215 9.34675 
1.32863 -8.95151 9.63053 
0.479907 -8.50975 9.08738 
0.14924 -8.2868 8.9261 
1.49272 -8.35755 8.65276 
1.36597 -8.84405 9.48208 
2.18825 -9.3188 9.91796 
1.28289 -8.78586 9.21547 
0.604695 -7.99038 8.37751 
0.683772 -8.90872 9.6431 
2.90764 -8.86067 9.05795 
0.592232 -8.76759 9.51658 
2.76351 -8.87227 9.09258 
0.120073 -8.3764 9.04264 
1.87807 -8.60604 8.95552 
0.716073 -8.72293 9.42778 
0.496897 -8.29419 8.69602 
0.366501 -8.58427 9.24887 
1.43692 -7.81446 7.94892 
0.414599 -8.62811 9.33905 
0.105553 -8.39135 9.05524 
1.14982 -9.0486 9.71117 
1.59328 -8.94608 9.54815 
0.0820672 -8.49545 9.23488 
2.73611 -8.81157 9.04441 
0.114629 -8.4706 9.14145 
2.88428 -7.99344 7.90697 
0.250429 -8.55183 9.27092 
1.6689 -8.44339 8.7975 
1.77186 -8.82084 9.26989 
0.435343 -8.54154 9.18145 
0.269344 -8.49177 9.16213 
0.371717 -8.44539 9.05035 
1.89881 -8.69012 9.07733 
0.839819 -8.9002 9.60306 
0.4724 -8.68776 9.4476 
2.98023 -8.49005 8.77289 
0.262566 -8.50612 9.17704 
0.515307 -7.74719 8.29734 
0.237898 -7.96185 8.45916 
0.436728 -8.14688 8.5711 
0.680537 -8.44573 8.79314 
0.711374 -8.38407 8.76611 
0.450225 -8.69004 9.45401 
0.453162 -8.73967 9.49214 
1.29473 -8.58962 8.90779 
1.9651 -8.26045 8.49086 
2.75194 -8.14385 8.29143 
0.678707 -8.79125 9.5218 
2.25552 -8.84173 9.19548 
0.344655 -8.63799 9.36425 
2.2253 -8.62652 8.92454 
2.81932 -7.96274 8.04843 
1.85795 -7.70738 7.8059 
0.374255 -8.46976 9.08573 
0.47345 -8.54732 9.15863 
2.95271 -8.25956 8.29353 
3.05233 -7.73579 7.45614 
0.256093 -8.38516 8.97668 
1.21357 -8.40834 8.73901 
0.205861 -8.63731 9.38601 
0.322349 -8.67936 9.43191 
0.774995 -8.73357 9.45279 
0.554386 -7.86557 8.27967 
0.678597 -8.57186 9.28707 
1.4979 -8.67704 9.10766 
0.994141 -8.6446 9.35132 
1.77801 -8.49646 8.83411 
3.14058 -7.76106 7.72947 
0.0641605 -8.59763 9.30148 
0.946135 -8.83567 9.49547 
0.295127 -8.06217 8.5332 
0.275224 -8.17043 8.70104 
1.99115 -8.49457 8.81458 
2.33342 -9.19536 9.64164 
0.343819 -8.76015 9.53718 
0.249558 -8.62352 9.3831 
2.15544 -8.59247 8.88611 
0.80969 -8.9455 9.65913 
0.588281 -8.42352 8.85405 
0.163555 -8.57521 9.34074 
0.137615 -8.24758 8.8871 
0.766685 -8.90059 9.62856 
0.51874 -7.68328 8.18064 
0.342189 -8.53105 9.17622 
0.312044 -8.38211 8.97796 
0.507784 -8.1717 8.58925 
1.84036 -8.7024 9.10139 
0.643848 -8.66095 9.31882 
0.915936 -8.80145 9.4442 
0.341749 -8.53144 9.17875 
1.96085 -9.4584 9.98442 
1.62703 -9.28035 9.83905 
0.247443 -8.55379 9.26879 
0.505437 -7.74099 8.26245 
0.80257 -8.57617 9.26465 
0.383426 -8.42142 9.01047 
1.89546 -8.19827 8.44142 
2.51458 -8.56867 8.82242 
0.141676 -8.63693 9.42095 
3.02833 -7.93198 7.87187 
0.574784 -7.85423 8.3089 
1.96707 -8.13943 8.35423 
0.67293 -7.73797 8.17214 
0.23323 -7.94773 8.42313 
0.827164 -8.80529 9.49743 
0.512094 -8.17245 8.58677 
0.8182 -8.91252 9.62483 
0.232945 -8.59627 9.35686 
2.08772 -9.32749 9.9472 
0.330885 -8.3369 8.82585 
1.02931 -8.54919 8.90382 
2.33651 -9.08705 9.43473 
0.742331 -8.7935 9.52029 
1.23992 -8.98879 9.65509 
0.144689 -8.64233 9.40797 
0.63538 -8.54451 9.02824 
1.07523 -8.14286 8.44416 
0.549727 -8.63624 9.34939 
0.356336 -8.6307 9.3541 
0.408872 -8.78229 9.5602 
0.595892 -8.86869 9.59007 
1.99855 -9.16992 9.77646 
0.393357 -7.91712 8.4141 
0.482682 -8.93042 9.55314 
0.573527 -8.16987 8.56438 
0.258529 -8.38239 8.97658 
0.249406 -8.58844 9.32975 
0.541995 -8.52443 9.09292 
0.0738208 -8.32782 9.00486 
1.57245 -8.22953 8.47119 
2.15936 -8.06982 8.24708 
0.832586 -8.62899 9.2971 
0.896506 -8.06428 8.41759 
0.659684 -8.84477 9.59675 
1.64667 -9.05171 9.66906 
0.12583 -8.38596 9.07156 
0.961994 -8.66061 9.30733 
0.614065 -8.61285 9.25473 
0.762205 -8.02883 8.41919 
3.04063 -8.60416 8.67913 
0.122486 -8.43337 9.10811 
0.78659 -8.57521 9.07884 
0.634347 -8.85638 9.58056 
0.601684 -8.64841 9.37912 
0.652625 -8.72443 9.54704 
0.439507 -8.7015 9.47113 
0.726786 -8.83877 9.57898 
1.85485 -9.38241 10.039 
2.1946 -9.38191 9.93147 
0.766476 -8.89967 9.63033 
1.72356 -8.09545 8.28687 
1.75724 -8.26971 8.55397 
0.702113 -8.77823 9.57191 
0.215223 -8.31931 8.85379 
2.53685 -9.31553 9.88703 
0.455292 -8.68438 9.45386 
1.19036 -9.0513 9.70885 
0.363359 -8.6151 9.18876 
0.796668 -8.51116 8.93153 
0.166379 -8.54736 9.29543 
2.21671 -8.9168 9.3054 
1.45767 -8.86998 9.65003 
0.820059 -8.91177 9.62364 
0.158951 -8.24094 8.87817 
0.4338 -8.6127 9.22422 
1.45151 -8.39472 8.68919 
0.184366 -8.35222 8.9817 
1.34474 -8.83602 9.35049 
0.95331 -9.09251 9.79333 
0.685482 -7.73942 8.14152 
2.06931 -7.7645 7.77385 
1.60147 -9.18859 9.79789 
0.111279 -8.18476 8.74115 
3.17485 -7.76387 7.61756 
1.13582 -7.80509 7.97471 
0.832206 -9.11516 9.70761 
0.214386 -8.54436 9.27707 
1.89908 -8.03941 8.22681 
1.20969 -9.29002 9.86186 
2.6458 -8.02843 8.1718 
0.887528 -8.60733 9.09963 
0.432209 -8.37844 8.79088 
0.094161 -8.47477 9.20617 
1.26707 -8.99213 9.63561 
1.89889 -9.39401 10.0565 
0.227963 -8.30994 8.83606 
0.136051 -8.48593 9.22304 
0.205519 -8.63808 9.39522 
2.51158 -8.99607 9.34904 
0.390261 -8.37386 8.86852 
2.43057 -7.91289 7.97122 
2.58597 -8.4356 8.60576 
1.70898 -8.39243 8.73436 
0.0678204 -8.4078 9.11135 
0.337144 -8.13943 8.58678 
0.490957 -8.78627 9.544 
0.49822 -7.84876 8.32918 
0.667038 -8.55399 9.02987 
0.0908388 -8.56798 9.31565 
0.508811 -8.71583 9.45631 
0.412855 -8.78017 9.56515 
1.76506 -8.23933 8.51471 
1.86567 -8.93736 9.37787 
2.80785 -7.7564 7.74393 
2.04194 -8.75222 9.09524 
1.06913 -8.97888 9.6581 
2.51994 -8.15938 8.42501 
0.689687 -8.40921 8.79888 
0.985155 -9.10077 9.70705 
0.0851096 -8.59112 9.32127 
2.61591 -7.72283 7.64364 
1.33411 -8.64579 9.03421 
0.191243 -8.44113 9.08954 
0.686987 -8.76099 9.47886 
0.736596 -7.71532 8.14394 
1.04699 -7.82482 7.95539 
1.31367 -7.99036 8.20037 
2.58681 -8.42982 8.60699 
2.05749 -8.01104 8.23147 
0.0882668 -8.56709 9.31251 
1.81347 -8.50473 8.66847 
0.703285 -8.40015 8.7995 
0.122008 -8.56118 9.31263 
2.24541 -8.07789 8.22852 
0.0290326 -8.5874 9.31205 
0.774171 -9.045 9.71748 
1.45939 -8.56734 8.95893 
0.442209 -8.84418 9.59647 
0.416366 -8.28192 8.70477 
0.0455992 -8.51059 9.25291 
0.62697 -8.56278 9.10866 
0.264073 -8.64124 9.3971 
0.371949 -7.97563 8.45928 
1.25266 -8.98785 9.62707 
1.07731 -8.97874 9.66488 
0.45423 -8.45522 9.05697 
0.466981 -8.42439 8.88922 
0.435125 -8.5412 9.17891 
0.352931 -7.93627 8.41474 
1.43363 -8.18036 8.45817 
0.251563 -8.5573 9.27735 
0.821485 -8.32198 8.67667 
3.21044 -7.6314 7.34304 
1.16571 -8.09293 8.30324 
1.5826 -7.91202 8.0307 
1.75049 -7.89531 8.09187 
0.667892 -8.06257 8.44914 
2.04212 -7.81262 7.86303 
0.493764 -8.78651 9.54487 
0.316133 -8.19468 8.67872 
0.305931 -8.43045 9.02711 
0.37431 -8.74904 9.50833 
0.250208 -8.63187 9.3917 
2.00965 -9.16237 9.73097 
1.69357 -9.06883 9.66327 
2.29142 -8.79085 9.11623 
2.10569 -8.09727 8.28262 
1.9678 -7.91399 8.04026 
0.166025 -8.63145 9.42987 
1.64221 -9.24522 9.8593 
0.801467 -8.74906 9.43023 
0.398039 -8.60172 9.34905 
0.403168 -8.66818 9.39546 
0.64398 -8.80964 9.56453 
0.463494 -8.57014 9.23644 
0.838353 -8.85511 9.54284 
1.08016 -8.93383 9.63655 
0.879435 -8.5709 9.45831 
0.835502 -8.62721 9.29572 
1.27545 -8.50729 8.76773 
0.662463 -8.82453 9.56035 
0.890561 -7.80696 8.08712 
0.468365 -8.67886 9.46311 
2.08337 -9.33998 9.96367 
0.58283 -8.79914 9.55047 
0.432589 -8.28474 8.70284 
0.833353 -7.86715 8.24425 
0.440234 -8.43604 8.96169 
0.69119 -8.78915 9.52412 
2.02082 -7.832 7.86711 
1.13582 -8.42305 8.75001 
1.66094 -9.05769 9.65401 
1.0157 -8.11364 8.45441 
0.318973 -8.27722 8.72153 
1.89093 -8.86178 9.25562 
